ply
format ascii 1.0
comment Generated for TouchDesigner point-cloud morph tutorial
element vertex 1225
property float x
property float y
property float z
property uchar red
property uchar green
property uchar blue
end_header
0.272364 0.168118 -0.414634 48 185 255
0.285253 0.168118 -0.405874 48 186 255
0.297861 0.168118 -0.396714 48 187 255
0.310176 0.168118 -0.387162 48 187 255
0.322184 0.168118 -0.377228 48 188 255
0.333874 0.168118 -0.366922 48 188 255
0.345234 0.168118 -0.356254 48 189 255
0.356254 0.168118 -0.345234 48 189 255
0.366922 0.168118 -0.333874 48 190 255
0.377228 0.168118 -0.322184 48 190 255
0.387162 0.168118 -0.310176 48 191 255
0.396714 0.168118 -0.297861 48 191 255
0.405874 0.168118 -0.285253 48 192 255
0.414634 0.168118 -0.272364 48 192 255
0.422985 0.168118 -0.259205 48 193 255
0.430918 0.168118 -0.245791 48 193 255
0.438426 0.168118 -0.232135 48 193 255
0.445501 0.168118 -0.218249 48 194 255
0.452136 0.168118 -0.204147 48 194 255
0.458326 0.168118 -0.189845 48 194 255
0.464063 0.168118 -0.175355 48 195 255
0.469342 0.168118 -0.160692 48 195 255
0.474158 0.168118 -0.145870 48 195 255
0.478506 0.168118 -0.130904 48 195 255
0.482381 0.168118 -0.115810 48 195 255
0.485781 0.168118 -0.100600 48 196 255
0.488701 0.168118 -0.085292 48 196 255
0.491139 0.168118 -0.069899 48 196 255
0.493092 0.168118 -0.054438 48 196 255
0.494559 0.168118 -0.038923 48 196 255
0.495538 0.168118 -0.023369 48 196 255
0.496027 0.168118 -0.007792 48 196 255
0.490918 0.161001 0.000000 48 196 255
0.490676 0.161001 0.015420 48 196 255
0.489949 0.161001 0.030825 48 196 255
0.488739 0.161001 0.046199 48 196 255
0.487047 0.161001 0.061528 48 196 255
0.484874 0.161001 0.076797 48 196 255
0.482223 0.161001 0.091989 48 195 255
0.479095 0.161001 0.107090 48 195 255
0.475495 0.161001 0.122086 48 195 255
0.471426 0.161001 0.136962 48 195 255
0.466891 0.161001 0.151702 48 195 255
0.461895 0.161001 0.166293 48 194 255
0.456444 0.161001 0.180719 48 194 255
0.450542 0.161001 0.194967 48 194 255
0.444196 0.161001 0.209023 48 194 255
0.437411 0.161001 0.222872 48 193 255
0.430195 0.161001 0.236502 48 193 255
0.422554 0.161001 0.249898 48 193 255
0.414496 0.161001 0.263047 48 192 255
0.406029 0.161001 0.275937 48 192 255
0.397161 0.161001 0.288554 48 191 255
0.387901 0.161001 0.300887 48 191 255
0.378259 0.161001 0.312923 48 190 255
0.368243 0.161001 0.324650 48 190 255
0.357864 0.161001 0.336057 48 189 255
0.347132 0.161001 0.347132 48 189 255
0.336057 0.161001 0.357864 48 188 255
0.324650 0.161001 0.368243 48 188 255
0.312923 0.161001 0.378259 48 187 255
0.300887 0.161001 0.387901 48 187 255
0.288554 0.161001 0.397161 48 186 255
0.275937 0.161001 0.406029 48 186 255
0.263047 0.161001 0.414496 48 185 255
0.249898 0.161001 0.422554 48 184 255
0.236502 0.161001 0.430195 48 184 255
0.222872 0.161001 0.437411 48 183 255
0.209023 0.161001 0.444196 48 182 255
0.194967 0.161001 0.450542 48 182 255
0.180719 0.161001 0.456444 48 181 255
0.166293 0.161001 0.461895 48 180 255
0.151702 0.161001 0.466891 48 180 255
0.136962 0.161001 0.471426 48 179 255
0.122086 0.161001 0.475495 48 178 255
0.107090 0.161001 0.479095 48 178 255
0.091989 0.161001 0.482223 48 177 255
0.076797 0.161001 0.484874 48 176 255
0.061528 0.161001 0.487047 48 175 255
0.046199 0.161001 0.488739 48 175 255
0.030825 0.161001 0.489949 48 174 255
0.015420 0.161001 0.490676 48 173 255
0.000000 0.161001 0.490918 48 172 255
-0.015420 0.161001 0.490676 48 172 255
-0.030825 0.161001 0.489949 48 171 255
-0.046199 0.161001 0.488739 48 170 255
-0.061528 0.161001 0.487047 48 170 255
-0.076797 0.161001 0.484874 48 169 255
-0.091989 0.161001 0.482223 48 168 255
-0.107090 0.161001 0.479095 48 167 255
-0.122086 0.161001 0.475495 48 167 255
-0.136962 0.161001 0.471426 48 166 255
-0.151702 0.161001 0.466891 48 165 255
-0.166293 0.161001 0.461895 48 165 255
-0.180719 0.161001 0.456444 48 164 255
-0.194967 0.161001 0.450542 48 163 255
-0.209023 0.161001 0.444196 48 163 255
-0.222872 0.161001 0.437411 48 162 255
-0.236502 0.161001 0.430195 48 161 255
-0.249898 0.161001 0.422554 48 161 255
-0.263047 0.161001 0.414496 48 160 255
-0.275937 0.161001 0.406029 48 159 255
-0.288554 0.161001 0.397161 48 159 255
-0.300887 0.161001 0.387901 48 158 255
-0.312923 0.161001 0.378259 48 158 255
-0.324650 0.161001 0.368243 48 157 255
-0.336057 0.161001 0.357864 48 157 255
-0.347132 0.161001 0.347132 48 156 255
-0.357864 0.161001 0.336057 48 156 255
-0.368243 0.161001 0.324650 48 155 255
-0.378259 0.161001 0.312923 48 155 255
-0.387901 0.161001 0.300887 48 154 255
-0.397161 0.161001 0.288554 48 154 255
-0.406029 0.161001 0.275937 48 153 255
-0.414496 0.161001 0.263047 48 153 255
-0.422554 0.161001 0.249898 48 152 255
-0.430195 0.161001 0.236502 48 152 255
-0.437411 0.161001 0.222872 48 152 255
-0.444196 0.161001 0.209023 48 151 255
-0.450542 0.161001 0.194967 48 151 255
-0.456444 0.161001 0.180719 48 151 255
-0.461895 0.161001 0.166293 48 151 255
-0.466891 0.161001 0.151702 48 150 255
-0.471426 0.161001 0.136962 48 150 255
-0.475495 0.161001 0.122086 48 150 255
-0.479095 0.161001 0.107090 48 150 255
-0.482223 0.161001 0.091989 48 150 255
-0.484874 0.161001 0.076797 48 149 255
-0.487047 0.161001 0.061528 48 149 255
-0.488739 0.161001 0.046199 48 149 255
-0.489949 0.161001 0.030825 48 149 255
-0.490676 0.161001 0.015420 48 149 255
-0.490918 0.161001 0.000000 48 149 255
-0.490676 0.161001 -0.015420 48 149 255
-0.489949 0.161001 -0.030825 48 149 255
-0.488739 0.161001 -0.046199 48 149 255
-0.487047 0.161001 -0.061528 48 149 255
-0.484874 0.161001 -0.076797 48 149 255
-0.482223 0.161001 -0.091989 48 150 255
-0.479095 0.161001 -0.107090 48 150 255
-0.475495 0.161001 -0.122086 48 150 255
-0.471426 0.161001 -0.136962 48 150 255
-0.466891 0.161001 -0.151702 48 150 255
-0.461895 0.161001 -0.166293 48 151 255
-0.456444 0.161001 -0.180719 48 151 255
-0.450542 0.161001 -0.194967 48 151 255
-0.444196 0.161001 -0.209023 48 151 255
-0.437411 0.161001 -0.222872 48 152 255
-0.430195 0.161001 -0.236502 48 152 255
-0.422554 0.161001 -0.249898 48 152 255
-0.414496 0.161001 -0.263047 48 153 255
-0.406029 0.161001 -0.275937 48 153 255
-0.397161 0.161001 -0.288554 48 154 255
-0.387901 0.161001 -0.300887 48 154 255
-0.378259 0.161001 -0.312923 48 155 255
-0.368243 0.161001 -0.324650 48 155 255
-0.357864 0.161001 -0.336057 48 156 255
-0.347132 0.161001 -0.347132 48 156 255
-0.336057 0.161001 -0.357864 48 157 255
-0.324650 0.161001 -0.368243 48 157 255
-0.312923 0.161001 -0.378259 48 158 255
-0.300887 0.161001 -0.387901 48 158 255
-0.288554 0.161001 -0.397161 48 159 255
-0.275937 0.161001 -0.406029 48 159 255
-0.263047 0.161001 -0.414496 48 160 255
-0.249898 0.161001 -0.422554 48 161 255
-0.236502 0.161001 -0.430195 48 161 255
-0.222872 0.161001 -0.437411 48 162 255
-0.209023 0.161001 -0.444196 48 163 255
-0.194967 0.161001 -0.450542 48 163 255
-0.180719 0.161001 -0.456444 48 164 255
-0.166293 0.161001 -0.461895 48 165 255
-0.151702 0.161001 -0.466891 48 165 255
-0.136962 0.161001 -0.471426 48 166 255
-0.122086 0.161001 -0.475495 48 167 255
-0.107090 0.161001 -0.479095 48 167 255
-0.091989 0.161001 -0.482223 48 168 255
-0.076797 0.161001 -0.484874 48 169 255
-0.061528 0.161001 -0.487047 48 170 255
-0.046199 0.161001 -0.488739 48 170 255
-0.030825 0.161001 -0.489949 48 171 255
-0.015420 0.161001 -0.490676 48 172 255
0.000000 0.161001 -0.490918 48 172 255
0.015420 0.161001 -0.490676 48 173 255
0.030825 0.161001 -0.489949 48 174 255
0.046199 0.161001 -0.488739 48 175 255
0.061528 0.161001 -0.487047 48 175 255
0.076797 0.161001 -0.484874 48 176 255
0.091989 0.161001 -0.482223 48 177 255
0.107090 0.161001 -0.479095 48 178 255
0.122086 0.161001 -0.475495 48 178 255
0.136962 0.161001 -0.471426 48 179 255
0.151702 0.161001 -0.466891 48 180 255
0.166293 0.161001 -0.461895 48 180 255
0.180719 0.161001 -0.456444 48 181 255
0.194967 0.161001 -0.450542 48 182 255
0.209023 0.161001 -0.444196 48 182 255
0.222872 0.161001 -0.437411 48 183 255
0.236502 0.161001 -0.430195 48 184 255
0.249898 0.161001 -0.422554 48 184 255
0.263047 0.161001 -0.414496 48 185 255
0.275937 0.161001 -0.406029 48 186 255
0.288554 0.161001 -0.397161 48 186 255
0.300887 0.161001 -0.387901 48 187 255
0.312923 0.161001 -0.378259 48 187 255
0.324650 0.161001 -0.368243 48 188 255
0.336057 0.161001 -0.357864 48 188 255
0.347132 0.161001 -0.347132 48 189 255
0.357864 0.161001 -0.336057 48 189 255
0.368243 0.161001 -0.324650 48 190 255
0.378259 0.161001 -0.312923 48 190 255
0.387901 0.161001 -0.300887 48 191 255
0.397161 0.161001 -0.288554 48 191 255
0.406029 0.161001 -0.275937 48 192 255
0.414496 0.161001 -0.263047 48 192 255
0.422554 0.161001 -0.249898 48 193 255
0.430195 0.161001 -0.236502 48 193 255
0.437411 0.161001 -0.222872 48 193 255
0.444196 0.161001 -0.209023 48 194 255
0.450542 0.161001 -0.194967 48 194 255
0.456444 0.161001 -0.180719 48 194 255
0.461895 0.161001 -0.166293 48 194 255
0.466891 0.161001 -0.151702 48 195 255
0.471426 0.161001 -0.136962 48 195 255
0.475495 0.161001 -0.122086 48 195 255
0.479095 0.161001 -0.107090 48 195 255
0.482223 0.161001 -0.091989 48 195 255
0.484874 0.161001 -0.076797 48 196 255
0.487047 0.161001 -0.061528 48 196 255
0.488739 0.161001 -0.046199 48 196 255
0.489949 0.161001 -0.030825 48 196 255
0.490676 0.161001 -0.015420 48 196 255
0.485914 0.153726 0.007633 47 196 255
0.485434 0.153726 0.022893 47 196 255
0.484476 0.153726 0.038129 47 196 255
0.483039 0.153726 0.053328 47 195 255
0.481126 0.153726 0.068474 47 195 255
0.478737 0.153726 0.083553 47 195 255
0.475877 0.153726 0.098549 47 195 255
0.472546 0.153726 0.113448 47 195 255
0.468750 0.153726 0.128235 47 195 255
0.464490 0.153726 0.142896 47 195 255
0.459773 0.153726 0.157415 47 194 255
0.454601 0.153726 0.171780 47 194 255
0.448981 0.153726 0.185974 47 194 255
0.442918 0.153726 0.199985 47 194 255
0.436418 0.153726 0.213799 47 193 255
0.429487 0.153726 0.227402 47 193 255
0.422132 0.153726 0.240780 47 193 255
0.414361 0.153726 0.253921 47 192 255
0.406181 0.153726 0.266811 47 192 255
0.397599 0.153726 0.279438 47 191 255
0.388626 0.153726 0.291789 47 191 255
0.379269 0.153726 0.303852 47 191 255
0.369537 0.153726 0.315615 47 190 255
0.359441 0.153726 0.327067 47 190 255
0.348991 0.153726 0.338195 47 189 255
0.338195 0.153726 0.348991 47 189 255
0.327067 0.153726 0.359441 47 188 255
0.315615 0.153726 0.369537 47 187 255
0.303852 0.153726 0.379269 47 187 255
0.291789 0.153726 0.388626 47 186 255
0.279438 0.153726 0.397599 47 186 255
0.266811 0.153726 0.406181 47 185 255
0.253921 0.153726 0.414361 47 185 255
0.240780 0.153726 0.422132 47 184 255
0.227402 0.153726 0.429487 47 183 255
0.213799 0.153726 0.436418 47 183 255
0.199985 0.153726 0.442918 47 182 255
0.185974 0.153726 0.448981 47 181 255
0.171780 0.153726 0.454601 47 181 255
0.157415 0.153726 0.459773 47 180 255
0.142896 0.153726 0.464490 47 179 255
0.128235 0.153726 0.468750 47 179 255
0.113448 0.153726 0.472546 47 178 255
0.098549 0.153726 0.475877 47 177 255
0.083553 0.153726 0.478737 47 176 255
0.068474 0.153726 0.481126 47 176 255
0.053328 0.153726 0.483039 47 175 255
0.038129 0.153726 0.484476 47 174 255
0.022893 0.153726 0.485434 47 174 255
0.007633 0.153726 0.485914 47 173 255
-0.007633 0.153726 0.485914 47 172 255
-0.022893 0.153726 0.485434 47 171 255
-0.038129 0.153726 0.484476 47 171 255
-0.053328 0.153726 0.483039 47 170 255
-0.068474 0.153726 0.481126 47 169 255
-0.083553 0.153726 0.478737 47 169 255
-0.098549 0.153726 0.475877 47 168 255
-0.113448 0.153726 0.472546 47 167 255
-0.128235 0.153726 0.468750 47 166 255
-0.142896 0.153726 0.464490 47 166 255
-0.157415 0.153726 0.459773 47 165 255
-0.171780 0.153726 0.454601 47 164 255
-0.185974 0.153726 0.448981 47 164 255
-0.199985 0.153726 0.442918 47 163 255
-0.213799 0.153726 0.436418 47 162 255
-0.227402 0.153726 0.429487 47 162 255
-0.240780 0.153726 0.422132 47 161 255
-0.253921 0.153726 0.414361 47 160 255
-0.266811 0.153726 0.406181 47 160 255
-0.279438 0.153726 0.397599 47 159 255
-0.291789 0.153726 0.388626 47 159 255
-0.303852 0.153726 0.379269 47 158 255
-0.315615 0.153726 0.369537 47 158 255
-0.327067 0.153726 0.359441 47 157 255
-0.338195 0.153726 0.348991 47 156 255
-0.348991 0.153726 0.338195 47 156 255
-0.359441 0.153726 0.327067 47 155 255
-0.369537 0.153726 0.315615 47 155 255
-0.379269 0.153726 0.303852 47 154 255
-0.388626 0.153726 0.291789 47 154 255
-0.397599 0.153726 0.279438 47 154 255
-0.406181 0.153726 0.266811 47 153 255
-0.414361 0.153726 0.253921 47 153 255
-0.422132 0.153726 0.240780 47 152 255
-0.429487 0.153726 0.227402 47 152 255
-0.436418 0.153726 0.213799 47 152 255
-0.442918 0.153726 0.199985 47 151 255
-0.448981 0.153726 0.185974 47 151 255
-0.454601 0.153726 0.171780 47 151 255
-0.459773 0.153726 0.157415 47 151 255
-0.464490 0.153726 0.142896 47 150 255
-0.468750 0.153726 0.128235 47 150 255
-0.472546 0.153726 0.113448 47 150 255
-0.475877 0.153726 0.098549 47 150 255
-0.478737 0.153726 0.083553 47 150 255
-0.481126 0.153726 0.068474 47 150 255
-0.483039 0.153726 0.053328 47 150 255
-0.484476 0.153726 0.038129 47 149 255
-0.485434 0.153726 0.022893 47 149 255
-0.485914 0.153726 0.007633 47 149 255
-0.485914 0.153726 -0.007633 47 149 255
-0.485434 0.153726 -0.022893 47 149 255
-0.484476 0.153726 -0.038129 47 149 255
-0.483039 0.153726 -0.053328 47 150 255
-0.481126 0.153726 -0.068474 47 150 255
-0.478737 0.153726 -0.083553 47 150 255
-0.475877 0.153726 -0.098549 47 150 255
-0.472546 0.153726 -0.113448 47 150 255
-0.468750 0.153726 -0.128235 47 150 255
-0.464490 0.153726 -0.142896 47 150 255
-0.459773 0.153726 -0.157415 47 151 255
-0.454601 0.153726 -0.171780 47 151 255
-0.448981 0.153726 -0.185974 47 151 255
-0.442918 0.153726 -0.199985 47 151 255
-0.436418 0.153726 -0.213799 47 152 255
-0.429487 0.153726 -0.227402 47 152 255
-0.422132 0.153726 -0.240780 47 152 255
-0.414361 0.153726 -0.253921 47 153 255
-0.406181 0.153726 -0.266811 47 153 255
-0.397599 0.153726 -0.279438 47 154 255
-0.388626 0.153726 -0.291789 47 154 255
-0.379269 0.153726 -0.303852 47 154 255
-0.369537 0.153726 -0.315615 47 155 255
-0.359441 0.153726 -0.327067 47 155 255
-0.348991 0.153726 -0.338195 47 156 255
-0.338195 0.153726 -0.348991 47 156 255
-0.327067 0.153726 -0.359441 47 157 255
-0.315615 0.153726 -0.369537 47 158 255
-0.303852 0.153726 -0.379269 47 158 255
-0.291789 0.153726 -0.388626 47 159 255
-0.279438 0.153726 -0.397599 47 159 255
-0.266811 0.153726 -0.406181 47 160 255
-0.253921 0.153726 -0.414361 47 160 255
-0.240780 0.153726 -0.422132 47 161 255
-0.227402 0.153726 -0.429487 47 162 255
-0.213799 0.153726 -0.436418 47 162 255
-0.199985 0.153726 -0.442918 47 163 255
-0.185974 0.153726 -0.448981 47 164 255
-0.171780 0.153726 -0.454601 47 164 255
-0.157415 0.153726 -0.459773 47 165 255
-0.142896 0.153726 -0.464490 47 166 255
-0.128235 0.153726 -0.468750 47 166 255
-0.113448 0.153726 -0.472546 47 167 255
-0.098549 0.153726 -0.475877 47 168 255
-0.083553 0.153726 -0.478737 47 169 255
-0.068474 0.153726 -0.481126 47 169 255
-0.053328 0.153726 -0.483039 47 170 255
-0.038129 0.153726 -0.484476 47 171 255
-0.022893 0.153726 -0.485434 47 171 255
-0.007633 0.153726 -0.485914 47 172 255
0.007633 0.153726 -0.485914 47 173 255
0.022893 0.153726 -0.485434 47 174 255
0.038129 0.153726 -0.484476 47 174 255
0.053328 0.153726 -0.483039 47 175 255
0.068474 0.153726 -0.481126 47 176 255
0.083553 0.153726 -0.478737 47 176 255
0.098549 0.153726 -0.475877 47 177 255
0.113448 0.153726 -0.472546 47 178 255
0.128235 0.153726 -0.468750 47 179 255
0.142896 0.153726 -0.464490 47 179 255
0.157415 0.153726 -0.459773 47 180 255
0.171780 0.153726 -0.454601 47 181 255
0.185974 0.153726 -0.448981 47 181 255
0.199985 0.153726 -0.442918 47 182 255
0.213799 0.153726 -0.436418 47 183 255
0.227402 0.153726 -0.429487 47 183 255
0.240780 0.153726 -0.422132 47 184 255
0.253921 0.153726 -0.414361 47 185 255
0.266811 0.153726 -0.406181 47 185 255
0.279438 0.153726 -0.397599 47 186 255
0.291789 0.153726 -0.388626 47 186 255
0.303852 0.153726 -0.379269 47 187 255
0.315615 0.153726 -0.369537 47 187 255
0.327067 0.153726 -0.359441 47 188 255
0.338195 0.153726 -0.348991 47 189 255
0.348991 0.153726 -0.338195 47 189 255
0.359441 0.153726 -0.327067 47 190 255
0.369537 0.153726 -0.315615 47 190 255
0.379269 0.153726 -0.303852 47 191 255
0.388626 0.153726 -0.291789 47 191 255
0.397599 0.153726 -0.279438 47 191 255
0.406181 0.153726 -0.266811 47 192 255
0.414361 0.153726 -0.253921 47 192 255
0.422132 0.153726 -0.240780 47 193 255
0.429487 0.153726 -0.227402 47 193 255
0.436418 0.153726 -0.213799 47 193 255
0.442918 0.153726 -0.199985 47 194 255
0.448981 0.153726 -0.185974 47 194 255
0.454601 0.153726 -0.171780 47 194 255
0.459773 0.153726 -0.157415 47 194 255
0.464490 0.153726 -0.142896 47 195 255
0.468750 0.153726 -0.128235 47 195 255
0.472546 0.153726 -0.113448 47 195 255
0.475877 0.153726 -0.098549 47 195 255
0.478737 0.153726 -0.083553 47 195 255
0.481126 0.153726 -0.068474 47 195 255
0.483039 0.153726 -0.053328 47 195 255
0.484476 0.153726 -0.038129 47 196 255
0.485434 0.153726 -0.022893 47 196 255
0.485914 0.153726 -0.007633 47 196 255
0.481261 0.146300 0.000000 47 195 255
0.481023 0.146300 0.015117 47 195 255
0.480311 0.146300 0.030219 47 195 255
0.479125 0.146300 0.045291 47 195 255
0.477466 0.146300 0.060318 47 195 255
0.475336 0.146300 0.075286 47 195 255
0.472736 0.146300 0.090179 47 195 255
0.469670 0.146300 0.104984 47 195 255
0.466141 0.146300 0.119685 47 195 255
0.462152 0.146300 0.134267 47 194 255
0.457706 0.146300 0.148718 47 194 255
0.452809 0.146300 0.163021 47 194 255
0.447465 0.146300 0.177164 47 194 255
0.441679 0.146300 0.191132 47 193 255
0.435458 0.146300 0.204911 47 193 255
0.428806 0.146300 0.218488 47 193 255
0.421732 0.146300 0.231849 47 193 255
0.414241 0.146300 0.244982 47 192 255
0.406342 0.146300 0.257872 47 192 255
0.398041 0.146300 0.270509 47 191 255
0.389348 0.146300 0.282878 47 191 255
0.380271 0.146300 0.294968 47 191 255
0.370818 0.146300 0.306767 47 190 255
0.360999 0.146300 0.318263 47 190 255
0.350824 0.146300 0.329446 47 189 255
0.340303 0.146300 0.340303 47 189 255
0.329446 0.146300 0.350824 47 188 255
0.318263 0.146300 0.360999 47 188 255
0.306767 0.146300 0.370818 47 187 255
0.294968 0.146300 0.380271 47 187 255
0.282878 0.146300 0.389348 47 186 255
0.270509 0.146300 0.398041 47 185 255
0.257872 0.146300 0.406342 47 185 255
0.244982 0.146300 0.414241 47 184 255
0.231849 0.146300 0.421732 47 184 255
0.218488 0.146300 0.428806 47 183 255
0.204911 0.146300 0.435458 47 182 255
0.191132 0.146300 0.441679 47 182 255
0.177164 0.146300 0.447465 47 181 255
0.163021 0.146300 0.452809 47 180 255
0.148718 0.146300 0.457706 47 180 255
0.134267 0.146300 0.462152 47 179 255
0.119685 0.146300 0.466141 47 178 255
0.104984 0.146300 0.469670 47 177 255
0.090179 0.146300 0.472736 47 177 255
0.075286 0.146300 0.475336 47 176 255
0.060318 0.146300 0.477466 47 175 255
0.045291 0.146300 0.479125 47 175 255
0.030219 0.146300 0.480311 47 174 255
0.015117 0.146300 0.481023 47 173 255
0.000000 0.146300 0.481261 47 172 255
-0.015117 0.146300 0.481023 47 172 255
-0.030219 0.146300 0.480311 47 171 255
-0.045291 0.146300 0.479125 47 170 255
-0.060318 0.146300 0.477466 47 170 255
-0.075286 0.146300 0.475336 47 169 255
-0.090179 0.146300 0.472736 47 168 255
-0.104984 0.146300 0.469670 47 168 255
-0.119685 0.146300 0.466141 47 167 255
-0.134267 0.146300 0.462152 47 166 255
-0.148718 0.146300 0.457706 47 165 255
-0.163021 0.146300 0.452809 47 165 255
-0.177164 0.146300 0.447465 47 164 255
-0.191132 0.146300 0.441679 47 163 255
-0.204911 0.146300 0.435458 47 163 255
-0.218488 0.146300 0.428806 47 162 255
-0.231849 0.146300 0.421732 47 161 255
-0.244982 0.146300 0.414241 47 161 255
-0.257872 0.146300 0.406342 47 160 255
-0.270509 0.146300 0.398041 47 160 255
-0.282878 0.146300 0.389348 47 159 255
-0.294968 0.146300 0.380271 47 158 255
-0.306767 0.146300 0.370818 47 158 255
-0.318263 0.146300 0.360999 47 157 255
-0.329446 0.146300 0.350824 47 157 255
-0.340303 0.146300 0.340303 47 156 255
-0.350824 0.146300 0.329446 47 156 255
-0.360999 0.146300 0.318263 47 155 255
-0.370818 0.146300 0.306767 47 155 255
-0.380271 0.146300 0.294968 47 154 255
-0.389348 0.146300 0.282878 47 154 255
-0.398041 0.146300 0.270509 47 154 255
-0.406342 0.146300 0.257872 47 153 255
-0.414241 0.146300 0.244982 47 153 255
-0.421732 0.146300 0.231849 47 152 255
-0.428806 0.146300 0.218488 47 152 255
-0.435458 0.146300 0.204911 47 152 255
-0.441679 0.146300 0.191132 47 152 255
-0.447465 0.146300 0.177164 47 151 255
-0.452809 0.146300 0.163021 47 151 255
-0.457706 0.146300 0.148718 47 151 255
-0.462152 0.146300 0.134267 47 151 255
-0.466141 0.146300 0.119685 47 150 255
-0.469670 0.146300 0.104984 47 150 255
-0.472736 0.146300 0.090179 47 150 255
-0.475336 0.146300 0.075286 47 150 255
-0.477466 0.146300 0.060318 47 150 255
-0.479125 0.146300 0.045291 47 150 255
-0.480311 0.146300 0.030219 47 150 255
-0.481023 0.146300 0.015117 47 150 255
-0.481261 0.146300 0.000000 47 150 255
-0.481023 0.146300 -0.015117 47 150 255
-0.480311 0.146300 -0.030219 47 150 255
-0.479125 0.146300 -0.045291 47 150 255
-0.477466 0.146300 -0.060318 47 150 255
-0.475336 0.146300 -0.075286 47 150 255
-0.472736 0.146300 -0.090179 47 150 255
-0.469670 0.146300 -0.104984 47 150 255
-0.466141 0.146300 -0.119685 47 150 255
-0.462152 0.146300 -0.134267 47 151 255
-0.457706 0.146300 -0.148718 47 151 255
-0.452809 0.146300 -0.163021 47 151 255
-0.447465 0.146300 -0.177164 47 151 255
-0.441679 0.146300 -0.191132 47 152 255
-0.435458 0.146300 -0.204911 47 152 255
-0.428806 0.146300 -0.218488 47 152 255
-0.421732 0.146300 -0.231849 47 152 255
-0.414241 0.146300 -0.244982 47 153 255
-0.406342 0.146300 -0.257872 47 153 255
-0.398041 0.146300 -0.270509 47 154 255
-0.389348 0.146300 -0.282878 47 154 255
-0.380271 0.146300 -0.294968 47 154 255
-0.370818 0.146300 -0.306767 47 155 255
-0.360999 0.146300 -0.318263 47 155 255
-0.350824 0.146300 -0.329446 47 156 255
-0.340303 0.146300 -0.340303 47 156 255
-0.329446 0.146300 -0.350824 47 157 255
-0.318263 0.146300 -0.360999 47 157 255
-0.306767 0.146300 -0.370818 47 158 255
-0.294968 0.146300 -0.380271 47 158 255
-0.282878 0.146300 -0.389348 47 159 255
-0.270509 0.146300 -0.398041 47 160 255
-0.257872 0.146300 -0.406342 47 160 255
-0.244982 0.146300 -0.414241 47 161 255
-0.231849 0.146300 -0.421732 47 161 255
-0.218488 0.146300 -0.428806 47 162 255
-0.204911 0.146300 -0.435458 47 163 255
-0.191132 0.146300 -0.441679 47 163 255
-0.177164 0.146300 -0.447465 47 164 255
-0.163021 0.146300 -0.452809 47 165 255
-0.148718 0.146300 -0.457706 47 165 255
-0.134267 0.146300 -0.462152 47 166 255
-0.119685 0.146300 -0.466141 47 167 255
-0.104984 0.146300 -0.469670 47 168 255
-0.090179 0.146300 -0.472736 47 168 255
-0.075286 0.146300 -0.475336 47 169 255
-0.060318 0.146300 -0.477466 47 170 255
-0.045291 0.146300 -0.479125 47 170 255
-0.030219 0.146300 -0.480311 47 171 255
-0.015117 0.146300 -0.481023 47 172 255
0.000000 0.146300 -0.481261 47 172 255
0.015117 0.146300 -0.481023 47 173 255
0.030219 0.146300 -0.480311 47 174 255
0.045291 0.146300 -0.479125 47 175 255
0.060318 0.146300 -0.477466 47 175 255
0.075286 0.146300 -0.475336 47 176 255
0.090179 0.146300 -0.472736 47 177 255
0.104984 0.146300 -0.469670 47 177 255
0.119685 0.146300 -0.466141 47 178 255
0.134267 0.146300 -0.462152 47 179 255
0.148718 0.146300 -0.457706 47 180 255
0.163021 0.146300 -0.452809 47 180 255
0.177164 0.146300 -0.447465 47 181 255
0.191132 0.146300 -0.441679 47 182 255
0.204911 0.146300 -0.435458 47 182 255
0.218488 0.146300 -0.428806 47 183 255
0.231849 0.146300 -0.421732 47 184 255
0.244982 0.146300 -0.414241 47 184 255
0.257872 0.146300 -0.406342 47 185 255
0.270509 0.146300 -0.398041 47 185 255
0.282878 0.146300 -0.389348 47 186 255
0.294968 0.146300 -0.380271 47 187 255
0.306767 0.146300 -0.370818 47 187 255
0.318263 0.146300 -0.360999 47 188 255
0.329446 0.146300 -0.350824 47 188 255
0.340303 0.146300 -0.340303 47 189 255
0.350824 0.146300 -0.329446 47 189 255
0.360999 0.146300 -0.318263 47 190 255
0.370818 0.146300 -0.306767 47 190 255
0.380271 0.146300 -0.294968 47 191 255
0.389348 0.146300 -0.282878 47 191 255
0.398041 0.146300 -0.270509 47 191 255
0.406342 0.146300 -0.257872 47 192 255
0.414241 0.146300 -0.244982 47 192 255
0.421732 0.146300 -0.231849 47 193 255
0.428806 0.146300 -0.218488 47 193 255
0.435458 0.146300 -0.204911 47 193 255
0.441679 0.146300 -0.191132 47 193 255
0.447465 0.146300 -0.177164 47 194 255
0.452809 0.146300 -0.163021 47 194 255
0.457706 0.146300 -0.148718 47 194 255
0.462152 0.146300 -0.134267 47 194 255
0.466141 0.146300 -0.119685 47 195 255
0.469670 0.146300 -0.104984 47 195 255
0.472736 0.146300 -0.090179 47 195 255
0.475336 0.146300 -0.075286 47 195 255
0.477466 0.146300 -0.060318 47 195 255
0.479125 0.146300 -0.045291 47 195 255
0.480311 0.146300 -0.030219 47 195 255
0.481023 0.146300 -0.015117 47 195 255
0.476724 0.138728 0.007489 46 195 255
0.476254 0.138728 0.022460 46 195 255
0.475313 0.138728 0.037408 46 195 255
0.473904 0.138728 0.052319 46 195 255
0.472027 0.138728 0.067179 46 195 255
0.469684 0.138728 0.081973 46 195 255
0.466877 0.138728 0.096686 46 195 255
0.463610 0.138728 0.111303 46 195 255
0.459885 0.138728 0.125810 46 194 255
0.455706 0.138728 0.140193 46 194 255
0.451078 0.138728 0.154438 46 194 255
0.446004 0.138728 0.168531 46 194 255
0.440490 0.138728 0.182457 46 193 255
0.434542 0.138728 0.196203 46 193 255
0.428164 0.138728 0.209756 46 193 255
0.421365 0.138728 0.223101 46 193 255
0.414149 0.138728 0.236226 46 192 255
0.406524 0.138728 0.249119 46 192 255
0.398499 0.138728 0.261765 46 191 255
0.390080 0.138728 0.274153 46 191 255
0.381276 0.138728 0.286270 46 191 255
0.372096 0.138728 0.298105 46 190 255
0.362549 0.138728 0.309646 46 190 255
0.352644 0.138728 0.320881 46 189 255
0.342391 0.138728 0.331800 46 189 255
0.331800 0.138728 0.342391 46 188 255
0.320881 0.138728 0.352644 46 188 255
0.309646 0.138728 0.362549 46 187 255
0.298105 0.138728 0.372096 46 187 255
0.286270 0.138728 0.381276 46 186 255
0.274153 0.138728 0.390080 46 186 255
0.261765 0.138728 0.398499 46 185 255
0.249119 0.138728 0.406524 46 184 255
0.236226 0.138728 0.414149 46 184 255
0.223101 0.138728 0.421365 46 183 255
0.209756 0.138728 0.428164 46 182 255
0.196203 0.138728 0.434542 46 182 255
0.182457 0.138728 0.440490 46 181 255
0.168531 0.138728 0.446004 46 181 255
0.154438 0.138728 0.451078 46 180 255
0.140193 0.138728 0.455706 46 179 255
0.125810 0.138728 0.459885 46 178 255
0.111303 0.138728 0.463610 46 178 255
0.096686 0.138728 0.466877 46 177 255
0.081973 0.138728 0.469684 46 176 255
0.067179 0.138728 0.472027 46 176 255
0.052319 0.138728 0.473904 46 175 255
0.037408 0.138728 0.475313 46 174 255
0.022460 0.138728 0.476254 46 174 255
0.007489 0.138728 0.476724 46 173 255
-0.007489 0.138728 0.476724 46 172 255
-0.022460 0.138728 0.476254 46 171 255
-0.037408 0.138728 0.475313 46 171 255
-0.052319 0.138728 0.473904 46 170 255
-0.067179 0.138728 0.472027 46 169 255
-0.081973 0.138728 0.469684 46 169 255
-0.096686 0.138728 0.466877 46 168 255
-0.111303 0.138728 0.463610 46 167 255
-0.125810 0.138728 0.459885 46 167 255
-0.140193 0.138728 0.455706 46 166 255
-0.154438 0.138728 0.451078 46 165 255
-0.168531 0.138728 0.446004 46 164 255
-0.182457 0.138728 0.440490 46 164 255
-0.196203 0.138728 0.434542 46 163 255
-0.209756 0.138728 0.428164 46 163 255
-0.223101 0.138728 0.421365 46 162 255
-0.236226 0.138728 0.414149 46 161 255
-0.249119 0.138728 0.406524 46 161 255
-0.261765 0.138728 0.398499 46 160 255
-0.274153 0.138728 0.390080 46 159 255
-0.286270 0.138728 0.381276 46 159 255
-0.298105 0.138728 0.372096 46 158 255
-0.309646 0.138728 0.362549 46 158 255
-0.320881 0.138728 0.352644 46 157 255
-0.331800 0.138728 0.342391 46 157 255
-0.342391 0.138728 0.331800 46 156 255
-0.352644 0.138728 0.320881 46 156 255
-0.362549 0.138728 0.309646 46 155 255
-0.372096 0.138728 0.298105 46 155 255
-0.381276 0.138728 0.286270 46 154 255
-0.390080 0.138728 0.274153 46 154 255
-0.398499 0.138728 0.261765 46 154 255
-0.406524 0.138728 0.249119 46 153 255
-0.414149 0.138728 0.236226 46 153 255
-0.421365 0.138728 0.223101 46 152 255
-0.428164 0.138728 0.209756 46 152 255
-0.434542 0.138728 0.196203 46 152 255
-0.440490 0.138728 0.182457 46 152 255
-0.446004 0.138728 0.168531 46 151 255
-0.451078 0.138728 0.154438 46 151 255
-0.455706 0.138728 0.140193 46 151 255
-0.459885 0.138728 0.125810 46 151 255
-0.463610 0.138728 0.111303 46 150 255
-0.466877 0.138728 0.096686 46 150 255
-0.469684 0.138728 0.081973 46 150 255
-0.472027 0.138728 0.067179 46 150 255
-0.473904 0.138728 0.052319 46 150 255
-0.475313 0.138728 0.037408 46 150 255
-0.476254 0.138728 0.022460 46 150 255
-0.476724 0.138728 0.007489 46 150 255
-0.476724 0.138728 -0.007489 46 150 255
-0.476254 0.138728 -0.022460 46 150 255
-0.475313 0.138728 -0.037408 46 150 255
-0.473904 0.138728 -0.052319 46 150 255
-0.472027 0.138728 -0.067179 46 150 255
-0.469684 0.138728 -0.081973 46 150 255
-0.466877 0.138728 -0.096686 46 150 255
-0.463610 0.138728 -0.111303 46 150 255
-0.459885 0.138728 -0.125810 46 151 255
-0.455706 0.138728 -0.140193 46 151 255
-0.451078 0.138728 -0.154438 46 151 255
-0.446004 0.138728 -0.168531 46 151 255
-0.440490 0.138728 -0.182457 46 152 255
-0.434542 0.138728 -0.196203 46 152 255
-0.428164 0.138728 -0.209756 46 152 255
-0.421365 0.138728 -0.223101 46 152 255
-0.414149 0.138728 -0.236226 46 153 255
-0.406524 0.138728 -0.249119 46 153 255
-0.398499 0.138728 -0.261765 46 154 255
-0.390080 0.138728 -0.274153 46 154 255
-0.381276 0.138728 -0.286270 46 154 255
-0.372096 0.138728 -0.298105 46 155 255
-0.362549 0.138728 -0.309646 46 155 255
-0.352644 0.138728 -0.320881 46 156 255
-0.342391 0.138728 -0.331800 46 156 255
-0.331800 0.138728 -0.342391 46 157 255
-0.320881 0.138728 -0.352644 46 157 255
-0.309646 0.138728 -0.362549 46 158 255
-0.298105 0.138728 -0.372096 46 158 255
-0.286270 0.138728 -0.381276 46 159 255
-0.274153 0.138728 -0.390080 46 159 255
-0.261765 0.138728 -0.398499 46 160 255
-0.249119 0.138728 -0.406524 46 161 255
-0.236226 0.138728 -0.414149 46 161 255
-0.223101 0.138728 -0.421365 46 162 255
-0.209756 0.138728 -0.428164 46 163 255
-0.196203 0.138728 -0.434542 46 163 255
-0.182457 0.138728 -0.440490 46 164 255
-0.168531 0.138728 -0.446004 46 164 255
-0.154438 0.138728 -0.451078 46 165 255
-0.140193 0.138728 -0.455706 46 166 255
-0.125810 0.138728 -0.459885 46 167 255
-0.111303 0.138728 -0.463610 46 167 255
-0.096686 0.138728 -0.466877 46 168 255
-0.081973 0.138728 -0.469684 46 169 255
-0.067179 0.138728 -0.472027 46 169 255
-0.052319 0.138728 -0.473904 46 170 255
-0.037408 0.138728 -0.475313 46 171 255
-0.022460 0.138728 -0.476254 46 171 255
-0.007489 0.138728 -0.476724 46 172 255
0.007489 0.138728 -0.476724 46 173 255
0.022460 0.138728 -0.476254 46 174 255
0.037408 0.138728 -0.475313 46 174 255
0.052319 0.138728 -0.473904 46 175 255
0.067179 0.138728 -0.472027 46 176 255
0.081973 0.138728 -0.469684 46 176 255
0.096686 0.138728 -0.466877 46 177 255
0.111303 0.138728 -0.463610 46 178 255
0.125810 0.138728 -0.459885 46 178 255
0.140193 0.138728 -0.455706 46 179 255
0.154438 0.138728 -0.451078 46 180 255
0.168531 0.138728 -0.446004 46 181 255
0.182457 0.138728 -0.440490 46 181 255
0.196203 0.138728 -0.434542 46 182 255
0.209756 0.138728 -0.428164 46 182 255
0.223101 0.138728 -0.421365 46 183 255
0.236226 0.138728 -0.414149 46 184 255
0.249119 0.138728 -0.406524 46 184 255
0.261765 0.138728 -0.398499 46 185 255
0.274153 0.138728 -0.390080 46 186 255
0.286270 0.138728 -0.381276 46 186 255
0.298105 0.138728 -0.372096 46 187 255
0.309646 0.138728 -0.362549 46 187 255
0.320881 0.138728 -0.352644 46 188 255
0.331800 0.138728 -0.342391 46 188 255
0.342391 0.138728 -0.331800 46 189 255
0.352644 0.138728 -0.320881 46 189 255
0.362549 0.138728 -0.309646 46 190 255
0.372096 0.138728 -0.298105 46 190 255
0.381276 0.138728 -0.286270 46 191 255
0.390080 0.138728 -0.274153 46 191 255
0.398499 0.138728 -0.261765 46 191 255
0.406524 0.138728 -0.249119 46 192 255
0.414149 0.138728 -0.236226 46 192 255
0.421365 0.138728 -0.223101 46 193 255
0.428164 0.138728 -0.209756 46 193 255
0.434542 0.138728 -0.196203 46 193 255
0.440490 0.138728 -0.182457 46 193 255
0.446004 0.138728 -0.168531 46 194 255
0.451078 0.138728 -0.154438 46 194 255
0.455706 0.138728 -0.140193 46 194 255
0.459885 0.138728 -0.125810 46 194 255
0.463610 0.138728 -0.111303 46 195 255
0.466877 0.138728 -0.096686 46 195 255
0.469684 0.138728 -0.081973 46 195 255
0.472027 0.138728 -0.067179 46 195 255
0.473904 0.138728 -0.052319 46 195 255
0.475313 0.138728 -0.037408 46 195 255
0.476254 0.138728 -0.022460 46 195 255
0.476724 0.138728 -0.007489 46 195 255
0.472546 0.131020 0.000000 46 195 255
0.472312 0.131020 0.014843 46 195 255
0.471613 0.131020 0.029671 46 195 255
0.470448 0.131020 0.044470 46 195 255
0.468819 0.131020 0.059226 46 195 255
0.466728 0.131020 0.073922 46 195 255
0.464176 0.131020 0.088546 46 195 255
0.461165 0.131020 0.103083 46 194 255
0.457700 0.131020 0.117517 46 194 255
0.453783 0.131020 0.131836 46 194 255
0.449418 0.131020 0.146025 46 194 255
0.444609 0.131020 0.160069 46 194 255
0.439362 0.131020 0.173956 46 193 255
0.433681 0.131020 0.187670 46 193 255
0.427572 0.131020 0.201200 46 193 255
0.421041 0.131020 0.214531 46 192 255
0.414095 0.131020 0.227651 46 192 255
0.406740 0.131020 0.240545 46 192 255
0.398983 0.131020 0.253203 46 191 255
0.390833 0.131020 0.265610 46 191 255
0.382297 0.131020 0.277755 46 191 255
0.373384 0.131020 0.289627 46 190 255
0.364103 0.131020 0.301212 46 190 255
0.354462 0.131020 0.312500 46 189 255
0.344471 0.131020 0.323480 46 189 255
0.334140 0.131020 0.334140 46 188 255
0.323480 0.131020 0.344471 46 188 255
0.312500 0.131020 0.354462 46 187 255
0.301212 0.131020 0.364103 46 187 255
0.289627 0.131020 0.373384 46 186 255
0.277755 0.131020 0.382297 46 186 255
0.265610 0.131020 0.390833 46 185 255
0.253203 0.131020 0.398983 46 185 255
0.240545 0.131020 0.406740 46 184 255
0.227651 0.131020 0.414095 46 183 255
0.214531 0.131020 0.421041 46 183 255
0.201200 0.131020 0.427572 46 182 255
0.187670 0.131020 0.433681 46 181 255
0.173956 0.131020 0.439362 46 181 255
0.160069 0.131020 0.444609 46 180 255
0.146025 0.131020 0.449418 46 179 255
0.131836 0.131020 0.453783 46 179 255
0.117517 0.131020 0.457700 46 178 255
0.103083 0.131020 0.461165 46 177 255
0.088546 0.131020 0.464176 46 177 255
0.073922 0.131020 0.466728 46 176 255
0.059226 0.131020 0.468819 46 175 255
0.044470 0.131020 0.470448 46 175 255
0.029671 0.131020 0.471613 46 174 255
0.014843 0.131020 0.472312 46 173 255
0.000000 0.131020 0.472546 46 172 255
-0.014843 0.131020 0.472312 46 172 255
-0.029671 0.131020 0.471613 46 171 255
-0.044470 0.131020 0.470448 46 170 255
-0.059226 0.131020 0.468819 46 170 255
-0.073922 0.131020 0.466728 46 169 255
-0.088546 0.131020 0.464176 46 168 255
-0.103083 0.131020 0.461165 46 168 255
-0.117517 0.131020 0.457700 46 167 255
-0.131836 0.131020 0.453783 46 166 255
-0.146025 0.131020 0.449418 46 166 255
-0.160069 0.131020 0.444609 46 165 255
-0.173956 0.131020 0.439362 46 164 255
-0.187670 0.131020 0.433681 46 164 255
-0.201200 0.131020 0.427572 46 163 255
-0.214531 0.131020 0.421041 46 162 255
-0.227651 0.131020 0.414095 46 162 255
-0.240545 0.131020 0.406740 46 161 255
-0.253203 0.131020 0.398983 46 160 255
-0.265610 0.131020 0.390833 46 160 255
-0.277755 0.131020 0.382297 46 159 255
-0.289627 0.131020 0.373384 46 159 255
-0.301212 0.131020 0.364103 46 158 255
-0.312500 0.131020 0.354462 46 158 255
-0.323480 0.131020 0.344471 46 157 255
-0.334140 0.131020 0.334140 46 157 255
-0.344471 0.131020 0.323480 46 156 255
-0.354462 0.131020 0.312500 46 156 255
-0.364103 0.131020 0.301212 46 155 255
-0.373384 0.131020 0.289627 46 155 255
-0.382297 0.131020 0.277755 46 154 255
-0.390833 0.131020 0.265610 46 154 255
-0.398983 0.131020 0.253203 46 154 255
-0.406740 0.131020 0.240545 46 153 255
-0.414095 0.131020 0.227651 46 153 255
-0.421041 0.131020 0.214531 46 153 255
-0.427572 0.131020 0.201200 46 152 255
-0.433681 0.131020 0.187670 46 152 255
-0.439362 0.131020 0.173956 46 152 255
-0.444609 0.131020 0.160069 46 151 255
-0.449418 0.131020 0.146025 46 151 255
-0.453783 0.131020 0.131836 46 151 255
-0.457700 0.131020 0.117517 46 151 255
-0.461165 0.131020 0.103083 46 151 255
-0.464176 0.131020 0.088546 46 150 255
-0.466728 0.131020 0.073922 46 150 255
-0.468819 0.131020 0.059226 46 150 255
-0.470448 0.131020 0.044470 46 150 255
-0.471613 0.131020 0.029671 46 150 255
-0.472312 0.131020 0.014843 46 150 255
-0.472546 0.131020 0.000000 46 150 255
-0.472312 0.131020 -0.014843 46 150 255
-0.471613 0.131020 -0.029671 46 150 255
-0.470448 0.131020 -0.044470 46 150 255
-0.468819 0.131020 -0.059226 46 150 255
-0.466728 0.131020 -0.073922 46 150 255
-0.464176 0.131020 -0.088546 46 150 255
-0.461165 0.131020 -0.103083 46 151 255
-0.457700 0.131020 -0.117517 46 151 255
-0.453783 0.131020 -0.131836 46 151 255
-0.449418 0.131020 -0.146025 46 151 255
-0.444609 0.131020 -0.160069 46 151 255
-0.439362 0.131020 -0.173956 46 152 255
-0.433681 0.131020 -0.187670 46 152 255
-0.427572 0.131020 -0.201200 46 152 255
-0.421041 0.131020 -0.214531 46 153 255
-0.414095 0.131020 -0.227651 46 153 255
-0.406740 0.131020 -0.240545 46 153 255
-0.398983 0.131020 -0.253203 46 154 255
-0.390833 0.131020 -0.265610 46 154 255
-0.382297 0.131020 -0.277755 46 154 255
-0.373384 0.131020 -0.289627 46 155 255
-0.364103 0.131020 -0.301212 46 155 255
-0.354462 0.131020 -0.312500 46 156 255
-0.344471 0.131020 -0.323480 46 156 255
-0.334140 0.131020 -0.334140 46 157 255
-0.323480 0.131020 -0.344471 46 157 255
-0.312500 0.131020 -0.354462 46 158 255
-0.301212 0.131020 -0.364103 46 158 255
-0.289627 0.131020 -0.373384 46 159 255
-0.277755 0.131020 -0.382297 46 159 255
-0.265610 0.131020 -0.390833 46 160 255
-0.253203 0.131020 -0.398983 46 160 255
-0.240545 0.131020 -0.406740 46 161 255
-0.227651 0.131020 -0.414095 46 162 255
-0.214531 0.131020 -0.421041 46 162 255
-0.201200 0.131020 -0.427572 46 163 255
-0.187670 0.131020 -0.433681 46 164 255
-0.173956 0.131020 -0.439362 46 164 255
-0.160069 0.131020 -0.444609 46 165 255
-0.146025 0.131020 -0.449418 46 166 255
-0.131836 0.131020 -0.453783 46 166 255
-0.117517 0.131020 -0.457700 46 167 255
-0.103083 0.131020 -0.461165 46 168 255
-0.088546 0.131020 -0.464176 46 168 255
-0.073922 0.131020 -0.466728 46 169 255
-0.059226 0.131020 -0.468819 46 170 255
-0.044470 0.131020 -0.470448 46 170 255
-0.029671 0.131020 -0.471613 46 171 255
-0.014843 0.131020 -0.472312 46 172 255
0.000000 0.131020 -0.472546 46 172 255
0.014843 0.131020 -0.472312 46 173 255
0.029671 0.131020 -0.471613 46 174 255
0.044470 0.131020 -0.470448 46 175 255
0.059226 0.131020 -0.468819 46 175 255
0.073922 0.131020 -0.466728 46 176 255
0.088546 0.131020 -0.464176 46 177 255
0.103083 0.131020 -0.461165 46 177 255
0.117517 0.131020 -0.457700 46 178 255
0.131836 0.131020 -0.453783 46 179 255
0.146025 0.131020 -0.449418 46 179 255
0.160069 0.131020 -0.444609 46 180 255
0.173956 0.131020 -0.439362 46 181 255
0.187670 0.131020 -0.433681 46 181 255
0.201200 0.131020 -0.427572 46 182 255
0.214531 0.131020 -0.421041 46 183 255
0.227651 0.131020 -0.414095 46 183 255
0.240545 0.131020 -0.406740 46 184 255
0.253203 0.131020 -0.398983 46 185 255
0.265610 0.131020 -0.390833 46 185 255
0.277755 0.131020 -0.382297 46 186 255
0.289627 0.131020 -0.373384 46 186 255
0.301212 0.131020 -0.364103 46 187 255
0.312500 0.131020 -0.354462 46 187 255
0.323480 0.131020 -0.344471 46 188 255
0.334140 0.131020 -0.334140 46 188 255
0.344471 0.131020 -0.323480 46 189 255
0.354462 0.131020 -0.312500 46 189 255
0.364103 0.131020 -0.301212 46 190 255
0.373384 0.131020 -0.289627 46 190 255
0.382297 0.131020 -0.277755 46 191 255
0.390833 0.131020 -0.265610 46 191 255
0.398983 0.131020 -0.253203 46 191 255
0.406740 0.131020 -0.240545 46 192 255
0.414095 0.131020 -0.227651 46 192 255
0.421041 0.131020 -0.214531 46 192 255
0.427572 0.131020 -0.201200 46 193 255
0.433681 0.131020 -0.187670 46 193 255
0.439362 0.131020 -0.173956 46 193 255
0.444609 0.131020 -0.160069 46 194 255
0.449418 0.131020 -0.146025 46 194 255
0.453783 0.131020 -0.131836 46 194 255
0.457700 0.131020 -0.117517 46 194 255
0.461165 0.131020 -0.103083 46 194 255
0.464176 0.131020 -0.088546 46 195 255
0.466728 0.131020 -0.073922 46 195 255
0.468819 0.131020 -0.059226 46 195 255
0.470448 0.131020 -0.044470 46 195 255
0.471613 0.131020 -0.029671 46 195 255
0.472312 0.131020 -0.014843 46 195 255
0.468494 0.123183 0.007360 45 195 255
0.468032 0.123183 0.022072 45 195 255
0.467108 0.123183 0.036762 45 195 255
0.465723 0.123183 0.051416 45 195 255
0.463878 0.123183 0.066020 45 195 255
0.461575 0.123183 0.080558 45 194 255
0.458817 0.123183 0.095016 45 194 255
0.455606 0.123183 0.109381 45 194 255
0.451946 0.123183 0.123638 45 194 255
0.447839 0.123183 0.137773 45 194 255
0.443290 0.123183 0.151772 45 194 255
0.438304 0.123183 0.165621 45 193 255
0.432886 0.123183 0.179307 45 193 255
0.427040 0.123183 0.192816 45 193 255
0.420773 0.123183 0.206135 45 192 255
0.414090 0.123183 0.219250 45 192 255
0.406999 0.123183 0.232148 45 192 255
0.399506 0.123183 0.244818 45 191 255
0.391619 0.123183 0.257246 45 191 255
0.383346 0.123183 0.269420 45 191 255
0.374694 0.123183 0.281328 45 190 255
0.365672 0.123183 0.292959 45 190 255
0.356290 0.123183 0.304300 45 189 255
0.346556 0.123183 0.315342 45 189 255
0.336480 0.123183 0.326072 45 188 255
0.326072 0.123183 0.336480 45 188 255
0.315342 0.123183 0.346556 45 187 255
0.304300 0.123183 0.356290 45 187 255
0.292959 0.123183 0.365672 45 186 255
0.281328 0.123183 0.374694 45 186 255
0.269420 0.123183 0.383346 45 185 255
0.257246 0.123183 0.391619 45 185 255
0.244818 0.123183 0.399506 45 184 255
0.232148 0.123183 0.406999 45 184 255
0.219250 0.123183 0.414090 45 183 255
0.206135 0.123183 0.420773 45 182 255
0.192816 0.123183 0.427040 45 182 255
0.179307 0.123183 0.432886 45 181 255
0.165621 0.123183 0.438304 45 180 255
0.151772 0.123183 0.443290 45 180 255
0.137773 0.123183 0.447839 45 179 255
0.123638 0.123183 0.451946 45 178 255
0.109381 0.123183 0.455606 45 178 255
0.095016 0.123183 0.458817 45 177 255
0.080558 0.123183 0.461575 45 176 255
0.066020 0.123183 0.463878 45 176 255
0.051416 0.123183 0.465723 45 175 255
0.036762 0.123183 0.467108 45 174 255
0.022072 0.123183 0.468032 45 174 255
0.007360 0.123183 0.468494 45 173 255
-0.007360 0.123183 0.468494 45 172 255
-0.022072 0.123183 0.468032 45 171 255
-0.036762 0.123183 0.467108 45 171 255
-0.051416 0.123183 0.465723 45 170 255
-0.066020 0.123183 0.463878 45 169 255
-0.080558 0.123183 0.461575 45 169 255
-0.095016 0.123183 0.458817 45 168 255
-0.109381 0.123183 0.455606 45 167 255
-0.123638 0.123183 0.451946 45 167 255
-0.137773 0.123183 0.447839 45 166 255
-0.151772 0.123183 0.443290 45 165 255
-0.165621 0.123183 0.438304 45 165 255
-0.179307 0.123183 0.432886 45 164 255
-0.192816 0.123183 0.427040 45 163 255
-0.206135 0.123183 0.420773 45 163 255
-0.219250 0.123183 0.414090 45 162 255
-0.232148 0.123183 0.406999 45 161 255
-0.244818 0.123183 0.399506 45 161 255
-0.257246 0.123183 0.391619 45 160 255
-0.269420 0.123183 0.383346 45 160 255
-0.281328 0.123183 0.374694 45 159 255
-0.292959 0.123183 0.365672 45 159 255
-0.304300 0.123183 0.356290 45 158 255
-0.315342 0.123183 0.346556 45 158 255
-0.326072 0.123183 0.336480 45 157 255
-0.336480 0.123183 0.326072 45 157 255
-0.346556 0.123183 0.315342 45 156 255
-0.356290 0.123183 0.304300 45 156 255
-0.365672 0.123183 0.292959 45 155 255
-0.374694 0.123183 0.281328 45 155 255
-0.383346 0.123183 0.269420 45 154 255
-0.391619 0.123183 0.257246 45 154 255
-0.399506 0.123183 0.244818 45 154 255
-0.406999 0.123183 0.232148 45 153 255
-0.414090 0.123183 0.219250 45 153 255
-0.420773 0.123183 0.206135 45 153 255
-0.427040 0.123183 0.192816 45 152 255
-0.432886 0.123183 0.179307 45 152 255
-0.438304 0.123183 0.165621 45 152 255
-0.443290 0.123183 0.151772 45 151 255
-0.447839 0.123183 0.137773 45 151 255
-0.451946 0.123183 0.123638 45 151 255
-0.455606 0.123183 0.109381 45 151 255
-0.458817 0.123183 0.095016 45 151 255
-0.461575 0.123183 0.080558 45 151 255
-0.463878 0.123183 0.066020 45 150 255
-0.465723 0.123183 0.051416 45 150 255
-0.467108 0.123183 0.036762 45 150 255
-0.468032 0.123183 0.022072 45 150 255
-0.468494 0.123183 0.007360 45 150 255
-0.468494 0.123183 -0.007360 45 150 255
-0.468032 0.123183 -0.022072 45 150 255
-0.467108 0.123183 -0.036762 45 150 255
-0.465723 0.123183 -0.051416 45 150 255
-0.463878 0.123183 -0.066020 45 150 255
-0.461575 0.123183 -0.080558 45 151 255
-0.458817 0.123183 -0.095016 45 151 255
-0.455606 0.123183 -0.109381 45 151 255
-0.451946 0.123183 -0.123638 45 151 255
-0.447839 0.123183 -0.137773 45 151 255
-0.443290 0.123183 -0.151772 45 151 255
-0.438304 0.123183 -0.165621 45 152 255
-0.432886 0.123183 -0.179307 45 152 255
-0.427040 0.123183 -0.192816 45 152 255
-0.420773 0.123183 -0.206135 45 153 255
-0.414090 0.123183 -0.219250 45 153 255
-0.406999 0.123183 -0.232148 45 153 255
-0.399506 0.123183 -0.244818 45 154 255
-0.391619 0.123183 -0.257246 45 154 255
-0.383346 0.123183 -0.269420 45 154 255
-0.374694 0.123183 -0.281328 45 155 255
-0.365672 0.123183 -0.292959 45 155 255
-0.356290 0.123183 -0.304300 45 156 255
-0.346556 0.123183 -0.315342 45 156 255
-0.336480 0.123183 -0.326072 45 157 255
-0.326072 0.123183 -0.336480 45 157 255
-0.315342 0.123183 -0.346556 45 158 255
-0.304300 0.123183 -0.356290 45 158 255
-0.292959 0.123183 -0.365672 45 159 255
-0.281328 0.123183 -0.374694 45 159 255
-0.269420 0.123183 -0.383346 45 160 255
-0.257246 0.123183 -0.391619 45 160 255
-0.244818 0.123183 -0.399506 45 161 255
-0.232148 0.123183 -0.406999 45 161 255
-0.219250 0.123183 -0.414090 45 162 255
-0.206135 0.123183 -0.420773 45 163 255
-0.192816 0.123183 -0.427040 45 163 255
-0.179307 0.123183 -0.432886 45 164 255
-0.165621 0.123183 -0.438304 45 165 255
-0.151772 0.123183 -0.443290 45 165 255
-0.137773 0.123183 -0.447839 45 166 255
-0.123638 0.123183 -0.451946 45 167 255
-0.109381 0.123183 -0.455606 45 167 255
-0.095016 0.123183 -0.458817 45 168 255
-0.080558 0.123183 -0.461575 45 169 255
-0.066020 0.123183 -0.463878 45 169 255
-0.051416 0.123183 -0.465723 45 170 255
-0.036762 0.123183 -0.467108 45 171 255
-0.022072 0.123183 -0.468032 45 171 255
-0.007360 0.123183 -0.468494 45 172 255
0.007360 0.123183 -0.468494 45 173 255
0.022072 0.123183 -0.468032 45 174 255
0.036762 0.123183 -0.467108 45 174 255
0.051416 0.123183 -0.465723 45 175 255
0.066020 0.123183 -0.463878 45 176 255
0.080558 0.123183 -0.461575 45 176 255
0.095016 0.123183 -0.458817 45 177 255
0.109381 0.123183 -0.455606 45 178 255
0.123638 0.123183 -0.451946 45 178 255
0.137773 0.123183 -0.447839 45 179 255
0.151772 0.123183 -0.443290 45 180 255
0.165621 0.123183 -0.438304 45 180 255
0.179307 0.123183 -0.432886 45 181 255
0.192816 0.123183 -0.427040 45 182 255
0.206135 0.123183 -0.420773 45 182 255
0.219250 0.123183 -0.414090 45 183 255
0.232148 0.123183 -0.406999 45 184 255
0.244818 0.123183 -0.399506 45 184 255
0.257246 0.123183 -0.391619 45 185 255
0.269420 0.123183 -0.383346 45 185 255
0.281328 0.123183 -0.374694 45 186 255
0.292959 0.123183 -0.365672 45 186 255
0.304300 0.123183 -0.356290 45 187 255
0.315342 0.123183 -0.346556 45 187 255
0.326072 0.123183 -0.336480 45 188 255
0.336480 0.123183 -0.326072 45 188 255
0.346556 0.123183 -0.315342 45 189 255
0.356290 0.123183 -0.304300 45 189 255
0.365672 0.123183 -0.292959 45 190 255
0.374694 0.123183 -0.281328 45 190 255
0.383346 0.123183 -0.269420 45 191 255
0.391619 0.123183 -0.257246 45 191 255
0.399506 0.123183 -0.244818 45 191 255
0.406999 0.123183 -0.232148 45 192 255
0.414090 0.123183 -0.219250 45 192 255
0.420773 0.123183 -0.206135 45 192 255
0.427040 0.123183 -0.192816 45 193 255
0.432886 0.123183 -0.179307 45 193 255
0.438304 0.123183 -0.165621 45 193 255
0.443290 0.123183 -0.151772 45 194 255
0.447839 0.123183 -0.137773 45 194 255
0.451946 0.123183 -0.123638 45 194 255
0.455606 0.123183 -0.109381 45 194 255
